# .PCD v0.7 - Point Cloud Data file format
VERSION 0.7
FIELDS x y z intensity
SIZE 4 4 4 4
TYPE F F F F
COUNT 1 1 1 1
WIDTH 1439
HEIGHT 1
VIEWPOINT 0 0 0 1 0 0 0
POINTS 1439
DATA ascii
2.3147397 5.4661274 0.43367708 0
3.8802633 -11.21303 0.56393307 0
-8.3989811 -22.309473 0.89649272 0
8.641593 -9.5105333 2.2152963 0
-6.4539843 -4.9084015 0.32938969 0
9.3488913 18.491108 3.6506841 0
-9.5956583 -12.754193 4.9667068 0
-68.226578 -13.231135 16.008842 0
19.280993 47.632576 7.6275206 0
18.916138 48.019115 2.5173993 0
-0.10112712 -21.494402 1.8665792 0
-1.4442738 -21.13154 3.4093225 0
-54.565502 -18.056656 4.9370961 0
12.448622 10.417372 3.1950884 0
-0.57032526 53.411625 2.6318796 0
-31.332481 1.8677485 2.673646 0
-16.117907 -15.44931 5.078146 0
-2.3905506 -23.642248 0.83970231 0
8.3190413 -17.288996 2.634434 0
-6.683753 -18.650225 0.79358715 0
-0.10648841 -13.219477 0.4221431 0
-0.5751822 -10.564035 0.38711318 0
-77.569473 -18.559336 9.1635265 0
-8.3498716 1.4811047 3.3799455 0
2.1988266 8.5886841 2.5325422 0
11.334064 -8.2565966 1.8156668 0
-25.929893 -18.126444 10.198038 0
-4.5261035 42.477032 1.8515688 0
-22.211716 76.594681 21.840034 0
42.003937 -8.0074434 10.196893 0
14.160751 -7.6051154 2.4135957 0
-61.685688 -14.663088 7.6335292 0
10.257313 23.111931 0.39257872 0
11.053106 -27.867134 6.3019142 0
-6.7695355 -17.705164 0.70486724 0
8.3006296 -16.901903 2.6159625 0
-42.347328 -36.533066 10.72678 0
-17.408987 -10.508769 2.8504512 0
-15.475135 -17.603939 2.3765354 0
11.671813 45.556408 1.6816082 0
-7.4299283 -24.152563 0.92383403 0
2.1512923 9.4156485 2.7411251 0
11.818686 -7.9613853 1.4944468 0
10.523926 45.066132 1.1151066 0
-8.4714127 -24.302725 0.89774734 0
3.9004481 -12.229098 3.8942499 0
11.948011 12.947113 1.5884753 0
-6.5886502 46.580109 6.4741526 0
10.303737 -29.620348 8.7266808 0
-0.21240795 -12.409354 0.44457337 0
5.2776546 43.966095 0.82379717 0
19.292353 -5.7883453 0.76010579 0
10.287205 11.33949 1.6560451 0
-7.4852347 45.31781 6.9132004 0
9.4228411 -30.318335 7.9574137 0
-0.49416625 -18.625477 4.1302299 0
-34.672783 -7.4438 2.3049777 0
-68.341141 -12.376953 16.223087 0
-5.408577 42.556362 1.5481832 0
-23.253613 76.177933 23.7071 0
-12.695344 -16.508266 6.1781683 0
6.3295498 -17.722588 2.7207909 0
7.1975222 -12.112646 1.3156099 0
-3.6309924 -28.38261 5.7132039 0
-1.618927 -18.564291 2.2232931 0
-10.507601 -1.3568971 3.1223319 0
-35.258842 -7.2270737 1.8084 0
8.7193861 -19.166597 4.4899135 0
12.326097 49.281857 2.2926257 0
-6.6379561 -20.801851 1.6380937 0
-10.429278 -8.0280657 0.71822435 0
1.4585249 40.75518 1.4157664 0
14.945273 -2.1377676 2.1275148 0
9.3514767 -10.35872 3.6172688 0
-0.67021561 -16.747513 0.84604782 0
-14.478095 -11.584333 0.85558927 0
-6.5374088 -7.5837803 0.30205005 0
18.228386 -1.2779822 2.2350323 0
-11.834939 -10.800002 0.67532408 0
-62.981148 -11.678762 5.2435589 0
13.109575 -4.66716 2.0788052 0
-1.7450764 44.402405 1.8387768 0
11.726513 1.5171732 2.8195376 0
1.5992059 -5.2803721 0.21166418 0
17.445099 17.537426 4.805253 0
2.5608466 -16.854572 4.0314207 0
-3.65993 -11.68512 0.46798036 0
21.735958 -5.7833948 2.4147253 0
-17.117823 -11.126381 3.311682 0
7.4358249 -17.533861 2.6014478 0
4.6737924 -14.201388 1.6156365 0
-4.59654 2.062706 2.329288 0
29.440271 -8.4499655 6.3979354 0
-23.111076 -11.782626 2.1016078 0
10.401228 -22.571186 5.3952975 0
5.408186 -18.186928 1.5692129 0
30.606144 -12.302793 6.8607955 0
-46.774857 -18.418797 6.3439865 0
-17.764647 -25.300817 2.8111498 0
10.33604 -10.270328 3.5208135 0
21.839668 49.203472 2.7632143 0
2.5458813 -20.272444 1.1529597 0
-6.6063652 -3.7506492 2.6308355 0
27.751589 -14.34165 6.7674346 0
4.4666371 -16.950222 0.82154626 0
-11.135613 -20.137697 1.8786147 0
20.701754 6.5852742 3.3642476 0
-5.6974139 -24.031527 0.83076066 0
0.033055525 -12.393956 0.44836104 0
-11.959493 -9.9918585 0.3701286 0
-12.410789 -9.92274 0.35397476 0
8.5135908 -28.640219 8.7962103 0
-22.97345 75.679787 21.611616 0
7.7903833 -30.158386 8.3472033 0
-5.349833 -17.493361 5.4001355 0
4.7975545 -21.649551 4.6504612 0
39.069485 -30.104389 8.9805965 0
-5.6308317 -14.558466 0.62980545 0
-66.892212 -20.165224 11.027397 0
9.7328062 -13.482385 2.8512833 0
-12.467293 1.1298394 1.4202205 0
21.860378 -9.0816517 2.7035239 0
-3.3334448 -15.767211 0.65935695 0
-0.70933872 -16.753532 1.3892176 0
3.0710492 -23.114401 1.5377748 0
-5.7832236 -6.7512579 2.9408512 0
28.55002 -17.339691 5.9405007 0
2.6388156 -22.952343 1.6551291 0
27.780514 -16.19038 5.1762323 0
19.538242 46.508533 2.4257398 0
0.31707606 -23.310658 1.1404878 0
-13.631082 -11.268214 0.73688495 0
-7.4386692 1.6675991 0.22036482 0
8.5017395 24.542109 5.0518451 0
13.049967 48.620155 1.9476135 0
-5.82583 -21.966179 0.94497597 0
2.4029176 -11.586931 0.35736755 0
28.753445 -9.4548483 6.403491 0
8.485465 -6.4724183 -0.024863299 0
2.1395938 4.2755475 -0.099849172 0
0.20114996 -9.4896412 3.97103 0
8.3912249 -29.597977 8.6903162 0
-14.202194 -10.968858 0.8830002 0
0.11513319 -9.7330084 2.6803668 0
-33.850533 1.4939365 1.8776114 0
-6.3031793 2.0393164 1.8970423 0
-67.414085 -14.514677 11.377731 0
4.8759623 23.130718 0.58335364 0
13.244408 -12.318423 3.9873126 0
-7.0370598 -18.040699 2.7598639 0
-1.0578337 -20.407846 1.7343386 0
5.5957127 -11.076718 1.6004169 0
30.622536 -5.5275359 7.6675844 0
-2.6600957 -16.167593 1.3256085 0
-11.808594 0.89974505 2.8308713 0
3.1371882 -22.9741 1.6009779 0
28.509323 -16.509535 5.657908 0
10.478896 -5.3493385 2.2764947 0
-65.315041 -12.246301 11.018378 0
-20.534842 76.855385 15.047707 0
17.495888 -0.49686617 0.99193096 0
-9.3217087 50.399483 3.5293889 0
-0.54680812 -15.743747 0.80855459 0
17.609221 -6.6539078 0.73226935 0
-9.4888506 44.352402 8.9532595 0
-2.9261656 -11.282189 0.40077999 0
22.302692 -5.7313194 2.4662194 0
-13.376223 -18.392504 4.7170281 0
31.550119 -10.594698 7.0749269 0
6.8457651 -16.53089 1.260035 0
32.357624 -11.70003 7.3937573 0
7.4213243 -17.299839 1.6288323 0
-4.2848992 -7.705452 0.30605942 0
10.445724 11.077324 -2.1852729 0
-20.573509 -11.594232 1.4194459 0
11.596883 15.347526 3.6464245 0
-1.2312639 -18.857479 5.1830287 0
-35.299049 -7.441329 2.5710471 0
-13.525012 -11.389754 5.5571461 0
25.346802 -9.5042381 4.1119366 0
-8.3867178 1.478757 2.5239871 0
-0.95449805 -19.208681 2.7951438 0
-9.1297941 -2.5711541 3.8933699 0
33.383881 -30.573746 9.3682632 0
-34.284897 -8.1001558 1.6890713 0
10.885156 80.71257 1.9386215 0
-16.794954 2.9508057 5.2335067 0
-2.4493043 -5.6041703 0.21011777 0
-18.585133 -9.4497852 1.7761284 0
13.10565 17.359013 4.5869603 0
22.4648 0.1488536 2.7502537 0
-5.1786447 -15.656751 0.72651106 0
-4.1705241 -20.473618 2.52162 0
-13.392412 -3.2310784 4.78158 0
-13.167357 -1.1971009 1.6073781 0
-4.3878679 -18.612026 0.81474388 0
1.741065 -20.297295 1.5838101 0
-7.525403 -3.5430248 2.4786086 0
26.534267 -14.387295 4.6222506 0
5.2681327 -17.829908 1.3351223 0
30.767548 -11.349647 6.8827748 0
-9.1576052 -10.243617 0.69164318 0
6.0970626 12.648988 3.0565701 0
-13.592806 -10.847114 0.83554965 0
-64.680969 -11.436384 10.351321 0
11.399528 -4.8255386 2.2963939 0
-6.1711316 -23.944256 0.8066057 0
-35.378063 1.667563 10.909348 0
-5.209527 2.0565708 1.8532562 0
10.586836 -6.3667812 3.576009 0
18.745861 -5.8296366 0.61994851 0
9.8077431 11.49369 1.1332673 0
-8.4223394 45.362823 8.2576809 0
8.4060307 -30.601915 8.0787735 0
12.440546 5.5574203 3.3152246 0
-3.8804715 -17.113575 0.94560784 0
-12.576095 -0.59499913 1.3244131 0
16.510946 0.72198069 3.8133869 0
-8.0645084 -5.2955365 1.2883122 0
32.309784 -12.418059 7.3692689 0
-1.2750927 -1.5020441 2.139462 0
-0.5262537 -17.535269 0.72782695 0
-14.459375 -9.7398024 3.4245603 0
11.695939 -58.494087 0.98094666 0
-6.7548404 -24.04657 2.5359824 0
-6.7581873 -17.480562 5.3622293 0
36.12925 -45.85957 13.618895 0
-11.281818 -20.319365 7.2017665 0
-0.49976075 79.852158 2.8245523 0
13.431823 5.5383968 2.3461773 0
-11.397273 -0.82864779 2.3760066 0
-19.615417 2.9285035 5.7291193 0
6.4763021 -1.337419 1.2669153 0
21.331146 -0.26531327 3.2602158 0
-30.14954 -12.842403 6.0568542 0
7.0618825 36.409962 -0.92874414 0
-1.5450541 -19.500139 2.6109674 0
6.3046885 55.030502 1.8168216 0
32.544521 -30.625099 9.3746424 0
-35.443367 -8.1458683 1.9528011 0
-10.598873 -2.6125908 5.1167312 0
4.4510455 -8.5021849 0.082158253 0
19.374708 -7.2992411 2.6545458 0
10.827574 9.8859749 3.0982394 0
21.383045 -0.26295304 2.6261492 0
-3.359622 -6.4826117 0.26582018 0
12.272533 16.222826 4.2871952 0
-42.253227 -37.481838 11.437694 0
-17.273319 -11.16255 2.8189151 0
-7.5170827 1.6372752 3.3243811 0
-0.54392028 -18.241396 1.6817515 0
-9.0988388 -1.9520643 2.3204279 0
-1.4091283 -16.242258 1.5136728 0
4.1331964 -11.311698 1.4092662 0
29.569736 -5.8914185 7.2890487 0
21.242699 46.144482 2.4065313 0
2.5769608 -23.111002 1.6785134 0
10.199018 -19.476894 3.6303654 0
-4.1124277 -20.755745 1.540004 0
7.4084935 -20.242384 4.0375886 0
-2.3728967 -15.613136 1.1882936 0
-11.781238 1.5349542 2.8473024 0
-21.259256 77.065666 22.444244 0
-3.6173198 43.757889 1.2389481 0
16.482653 0.63091999 0.9576388 0
10.649963 -4.7706547 2.4371459 0
-65.321915 -11.515419 11.341886 0
-20.417408 77.158195 22.023907 0
17.250957 0.45594186 0.94305986 0
-9.5250692 51.295235 3.269809 0
3.6566987 -16.918083 0.61682355 0
7.3533359 -42.420891 2.5765104 0
-5.2670736 0.79070503 1.2881696 0
-12.31425 -20.485527 1.8098847 0
19.660069 6.7562194 3.5310638 0
9.4876728 -10.37038 2.6325629 0
12.384453 -8.3208513 0.620866 0
-14.637453 42.345226 5.4769249 0
-12.592918 -7.7342563 5.0114369 0
30.486225 -35.515347 10.413118 0
-3.3258193 -24.061754 2.8050768 0
-8.0391397 -4.5137463 0.87532073 0
7.6297474 18.53738 3.9871423 0
-22.678028 3.0890331 7.2163696 0
2.5035133 -9.5202475 0.3306793 0
18.35203 13.728806 3.8277242 0
1.7004585 -8.4602318 0.28743762 0
17.386761 14.554206 4.0422344 0
-12.581367 -0.32774445 3.3796613 0
-3.7386575 -17.548729 2.3649147 0
-6.1277742 -10.595449 0.40434724 0
30.27454 -3.6808562 6.1060653 0
5.9065533 -9.9863834 1.3303876 0
-13.435901 -16.544178 6.4583745 0
0.20914403 -18.4457 3.7602062 0
22.198357 -5.7630644 0.70335788 0
13.524302 11.062053 1.7185506 0
-6.4023089 1.8314505 1.7353294 0
-23.807102 1.9523494 7.4644079 0
11.533948 -16.064791 4.1315818 0
-3.7552953 -17.410742 1.6637021 0
-12.672302 -0.67560458 2.5792437 0
5.5314064 -4.4891896 -0.075424708 0
20.215099 -3.7622466 1.919186 0
11.489882 13.45674 2.5312238 0
2.5799522 -16.943554 1.558767 0
27.50123 -10.592113 5.480238 0
4.5218344 -13.819295 1.3064852 0
29.446638 -7.5972748 5.7284961 0
-3.7292426 -20.781651 0.92404145 0
-4.5258574 -23.863014 0.85391825 0
-2.4995048 -8.3994522 0.33063003 0
69.552132 -76.829185 29.661825 0
-16.945686 -20.960506 3.1495907 0
2.5010505 -5.5561485 0.23024148 0
-2.418819 -4.5227804 0.20590077 0
-18.634974 -8.6496782 1.6877687 0
13.021232 18.325825 4.9272184 0
2.5960374 -17.47587 1.5768077 0
27.436226 -11.461755 5.5644226 0
-25.690392 -17.457047 9.4144506 0
0.021785736 27.80039 -0.33541879 0
10.239798 -23.711191 5.3814359 0
-8.1188946 1.6270498 1.7552149 0
-10.686261 -1.460968 1.6070172 0
-45.235435 1.0564717 11.552853 0
-1.6300678 -18.261021 0.74322605 0
-6.3712468 -12.473235 0.48242506 0
18.166639 -6.7918 2.0846953 0
8.1979246 -11.571804 2.6358068 0
5.8168821 -1.2917571 1.1499765 0
20.507521 -0.27115786 3.4661021 0
-42.775951 -29.247673 13.523847 0
26.605047 -9.240427 4.8288932 0
-4.423522 -18.529568 2.4926271 0
-13.338476 -1.4235142 3.6261148 0
-17.78112 -9.5343151 2.6496322 0
10.215345 -16.967876 3.426307 0
20.545538 8.6762629 0.95727748 0
11.83091 -19.857151 6.1606517 0
-3.6842415 -20.68792 1.6273112 0
-11.03924 -7.720891 0.89967942 0
-6.6794047 -23.967594 1.5231464 0
18.214672 2.3466525 0.9283005 0
9.155839 19.624674 1.2786716 0
-8.5380669 53.23917 4.0636811 0
-13.54238 -15.480581 6.4106855 0
19.64896 46.058601 1.857115 0
0.10334645 -23.414707 0.97588223 0
16.877651 -0.66271383 4.3464093 0
-4.029181 -20.79232 0.88471872 0
-2.4933999 -16.096054 0.72869033 0
-11.84989 0.52253145 1.0155983 0
-62.094475 -15.049281 5.0320716 0
9.3667822 22.309353 0.57556677 0
20.109558 -3.914716 0.57525492 0
11.665459 13.359673 1.4045069 0
-6.3290734 47.282619 5.8435802 0
4.5675364 -3.4357848 -0.13431762 0
-34.604912 1.6854585 10.96915 0
0.4735027 -11.228215 0.40700543 0
-8.2006283 -5.3073864 4.1438003 0
3.0285602 -20.490421 0.77367818 0
-10.611193 -12.661321 4.425652 0
6.4046659 -10.345119 2.8589084 0
-10.687438 -14.479672 4.5611253 0
20.54994 46.122246 1.7233455 0
1.8822517 -23.319002 0.63789791 0
-7.8706841 -6.2717342 1.4981834 0
17.39274 -0.35507742 3.8532512 0
-12.557634 -15.436718 6.0844932 0
34.233551 -12.878748 6.1575441 0
9.6278152 -18.461475 1.8786514 0
-0.69064313 -23.477011 1.4639629 0
11.485464 64.33152 12.025421 0
-7.9444871 -5.5003252 2.0646982 0
-13.51408 -10.540423 2.8971186 0
-16.59515 -9.5145998 2.7748284 0
18.551794 17.504925 4.9594226 0
-13.671419 -9.3226547 1.1572652 0
9.2553329 54.304832 2.6062875 0
-9.5487432 -15.313943 1.2515219 0
-19.036697 76.711601 1.9980651 0
6.5704107 -9.6426649 3.8787484 0
3.6609273 -29.576529 7.2832718 0
92.381363 -65.826538 32.427513 0
0.24706063 -18.318481 1.8846905 0
-4.3557248 -4.434083 0.23607987 0
11.218685 18.594812 3.9187667 0
-6.5404892 -1.7286861 0.09652929 0
9.250001 21.655912 3.6727755 0
5.1775503 3.0111921 1.7401056 0
3.5757172 -16.952133 2.3413086 0
6.4599252 -11.207625 1.5762957 0
31.893717 -5.3246837 7.6993375 0
7.8229704 -5.5462737 1.3207942 0
-6.1873975 -7.3569455 3.2161489 0
-15.409753 -13.460402 6.3895173 0
70.411102 -69.584328 28.379416 0
28.31501 -5.9771261 6.7185187 0
3.9579577 -11.400759 1.498031 0
-42.780445 -28.406939 13.005514 0
26.242954 -8.6962624 4.2746744 0
-7.2232466 2.0768282 2.3639762 0
-47.57275 -26.623276 14.135626 0
0.40048715 42.080391 1.222991 0
-17.198446 76.916023 5.0494399 0
-7.8819618 -3.5712144 0.71714044 0
8.5702629 19.476809 3.6725225 0
-5.2770896 1.8363379 -2.5796785 0
8.8096666 -14.27601 4.7436228 0
15.242804 6.3565583 3.4572725 0
-16.498245 -20.730106 1.8057752 0
6.1969519 -15.658335 2.9451976 0
-14.787128 -25.024403 2.7326107 0
3.7102911 -16.949408 1.4464623 0
28.097795 -10.758002 5.387754 0
12.083491 3.7826085 1.3725544 0
-2.4436824 2.0287681 -0.28804079 0
-26.589849 2.316124 8.0140772 0
-17.168135 2.9416342 5.113915 0
1.3938491 -13.308506 0.45370537 0
32.612267 -10.232218 8.3643188 0
7.431808 -16.487745 1.280774 0
33.123283 -10.082244 8.9802971 0
8.2527771 -16.559559 1.3287578 0
-45.877892 -26.305655 13.287835 0
10.217985 -24.129797 5.6601524 0
-17.44832 -9.387249 3.5486009 0
2.271219 -16.959816 2.2503352 0
-6.7961955 0.35104865 3.4497926 0
8.9407167 17.387691 0.30661973 0
-9.5477018 51.475742 2.572454 0
17.633818 1.0704308 1.5562544 0
4.4609079 44.249763 0.64187759 0
9.5098133 15.509227 3.3298028 0
-22.591217 -11.590202 1.6612605 0
-7.5279417 -10.136866 3.5783422 0
27.027292 -5.8849549 5.3094549 0
-5.2413549 1.9109954 1.786183 0
-30.717436 -14.349448 8.7092323 0
7.2043819 34.051773 -0.37594885 0
-17.040352 -21.080587 1.8948692 0
14.990416 5.8559732 3.7644515 0
-10.878129 -0.65992773 1.8867515 0
-1.6729723 -17.913523 0.68348724 0
41.38501 -9.9506588 10.481703 0
31.533558 -13.751698 7.6961937 0
10.163692 -12.766447 2.8651636 0
-0.46270031 -0.51480663 -0.21751431 0
-26.512163 -19.595493 7.768126 0
10.306481 -12.752657 4.8987951 0
20.470139 51.353275 7.3296261 0
1.4907223 -18.174879 2.267319 0
-7.8349524 -1.2902265 3.6598108 0
-17.75663 -18.679926 3.0959053 0
68.480499 -74.052734 29.184662 0
2.4471788 -4.3849945 0.22415455 0
27.353502 1.843635 2.5336792 0
-13.719892 -8.372468 1.1929232 0
18.496077 18.411169 4.9533172 0
8.9742613 -4.9055567 3.0476582 0
-8.2780457 -6.5724721 3.5246475 0
-33.757988 -12.566883 1.7563753 0
-0.18699689 27.768408 -0.31283033 0
-3.3678708 -16.536732 5.533195 0
-14.403907 -17.465609 4.6500912 0
-33.657074 -12.631895 2.5347664 0
0.47024742 -23.359293 6.368669 0
10.448768 -18.358248 4.378881 0
9.4482899 -12.413777 2.7894855 0
-12.05818 -11.119454 0.64603531 0
7.5892715 -29.843925 8.7368107 0
-12.344015 -14.46921 6.0948114 0
-20.459763 3.1096053 6.7173338 0
-49.73959 -19.37413 8.6278152 0
-25.733843 2.5404739 7.8217359 0
11.451936 -5.3314223 2.3873539 0
-64.680901 -12.422543 12.290936 0
-19.594629 76.845299 5.4228444 0
38.45179 -30.111141 9.5678339 0
-6.525537 -14.562192 0.61193502 0
-67.336807 -20.491024 10.730105 0
8.8331356 -13.310862 2.7968469 0
1.1380734 36.798328 -1.0083308 0
72.554024 -65.990982 29.638103 0
-13.325619 -9.7411957 3.4727364 0
-4.6887293 -19.219425 3.3114429 0
-12.728818 -13.63115 5.6534171 0
12.557819 -5.4691305 2.7952464 0
-63.801529 -12.840199 13.09161 0
-18.623617 76.89801 8.9473715 0
26.310591 -7.7546673 4.0020332 0
17.261009 -7.1952553 2.2960737 0
-7.6474886 -13.744144 0.67129421 0
2.3016906 -8.5798464 0.28764504 0
18.495705 14.676534 4.1226115 0
39.926483 -11.378269 11.504471 0
-6.7165127 -11.855803 3.9138832 0
-4.3902426 -23.767679 1.6917533 0
5.5848413 -16.203722 2.8439572 0
-17.779724 -19.470304 3.1941774 0
68.623955 -75.156136 27.942595 0
10.258039 -18.344601 2.7052827 0
-8.0777988 -6.7462454 0.87401325 0
7.7784548 16.825544 3.2889066 0
1.8864527 -16.967886 1.8528353 0
5.5356956 -42.371529 4.2172451 0
-7.5030541 0.43235353 2.5324109 0
26.965336 -10.314375 5.3966751 0
-29.5467 2.1374209 2.2372417 0
4.9107175 -8.5942678 3.6384125 0
1.2619003 -12.62606 0.39787778 0
-7.4871426 43.36076 -1.0680015 0
5.5789123 0.52830219 -0.21861844 0
-25.396917 -22.471235 7.9476452 0
-14.280372 77.05381 2.6601751 0
-13.504251 -14.601254 6.3393106 0
-0.38523796 -0.73854816 0.17719036 0
15.494324 22.591064 6.2332821 0
-9.0951958 -2.0977173 1.9665334 0
10.451035 -11.327187 2.7359064 0
-6.8037801 0.18829609 2.5836964 0
6.4505162 -42.308582 4.1831126 0
10.2169 -21.512936 4.7999048 0
14.221654 47.605034 2.2490783 0
-4.7448525 -22.090277 1.740911 0
6.2221274 23.614298 5.2578878 0
-9.3148317 -19.811388 6.9474554 0
1.592595 80.05188 2.598639 0
-6.365828 -6.827702 3.6553955 0
21.503696 46.57127 6.2755728 0
2.6623573 -23.083458 2.5481067 0
21.484159 47.393642 9.2080154 0
2.7852855 -22.952816 2.6217163 0
-6.5455146 -5.0913453 4.7542624 0
-26.420786 -15.220451 7.9615436 0
7.298799 -19.397558 4.201242 0
-50.466282 -19.577656 9.6242552 0
-26.855488 -16.392349 8.2411003 0
-8.5994616 -23.954632 1.1157869 0
29.137506 1.9262372 2.5997293 0
4.5078411 -4.4708424 0.61885333 0
20.478434 18.539042 5.6305418 0
-68.461349 -11.535439 15.363127 0
-5.4423008 43.359768 1.2593199 0
-8.5616245 -16.567007 5.0797334 0
-50.593899 -18.562273 7.2393241 0
-15.097313 -16.293396 1.3660927 0
3.7973671 53.419758 2.8095076 0
14.447968 -23.074217 3.5273309 0
5.5374236 -17.749575 2.7180793 0
-2.6311617 -10.211186 0.4236322 0
22.161526 -4.630538 2.772016 0
-30.353992 -15.498833 9.2131348 0
-6.4481211 -8.6785097 5.3357143 0
79.098991 -64.276436 27.655378 0
-0.59962797 -20.37767 4.3667402 0
-42.711769 -31.247906 13.134511 0
4.8718619 -18.284435 2.579221 0
-6.7924719 -13.494028 0.44759196 0
38.676979 -29.972054 8.6187019 0
-14.787338 -11.438918 2.8833475 0
4.589498 -4.8877344 1.0577424 0
29.126003 1.721235 3.1190701 0
-8.6433773 -18.741262 6.4910836 0
17.337227 -6.7003918 1.6263134 0
32.076302 -5.2427979 7.7322173 0
7.3414068 -11.474225 1.3138987 0
4.5472479 -1.124602 0.48209527 0
7.6198053 64.550278 2.8027589 0
20.55756 21.510986 6.1351929 0
-22.24243 49.802418 5.1826005 0
-5.885242 -26.584743 6.6447082 0
8.7347813 -18.346983 4.2191877 0
33.160408 -9.7816992 8.9660292 0
8.3788309 -15.840659 1.1357924 0
-0.60262674 1.8714918 2.1262605 0
8.2774115 -5.4809847 0.34496942 0
-18.785471 45.635113 8.3721752 0
-8.3955927 -4.4179511 3.4860008 0
19.221415 48.18454 9.0132074 0
0.15566635 -21.288744 2.3924863 0
-7.404007 46.381279 7.095758 0
9.3103218 -29.305052 8.6821241 0
4.5072236 -11.368177 4.4406371 0
1.5672699 9.6543798 2.7558155 0
10.080815 -7.5586786 1.3565072 0
41.904461 -7.91889 10.155174 0
39.911301 -12.355374 9.9562654 0
4.6627293 -19.301647 4.0178661 0
-2.8812354 -24.18219 4.7531176 0
-36.689331 -13.245471 2.1295128 0
16.460062 49.680939 7.6551714 0
-2.7221172 -20.807562 2.5816433 0
-11.490675 -3.1339762 4.6212096 0
-31.159618 -13.870488 8.3526783 0
5.5834718 -22.193663 4.9646926 0
11.572783 6.4691482 2.5117087 0
-13.034215 -19.13847 5.0784755 0
28.452635 -7.442524 5.121089 0
13.194901 44.605244 0.4031018 0
26.080418 1.7592641 1.5054705 0
-27.651884 -17.637703 8.4435835 0
11.108361 0.42750147 -0.15481424 0
3.7744622 -8.4952803 1.582443 0
11.676064 6.3859968 1.3999166 0
20.69943 -30.908119 8.945138 0
6.3558617 -15.672268 3.5289376 0
-12.38204 -10.616082 3.6089752 0
2.2578397 35.724762 -1.0105112 0
73.068321 -66.406326 25.47003 0
7.2504821 59.33342 10.323184 0
-11.641412 -10.660258 2.6620371 0
-13.060081 0.33980691 0.91623759 0
31.639637 -15.413874 8.060504 0
6.5999398 -21.556677 1.7338752 0
-12.40088 -9.6571484 2.9309409 0
-4.7869792 -1.9165405 1.093906 0
-10.598061 -15.514812 5.6899867 0
11.358741 0.49460247 1.4637399 0
21.824471 -6.2988906 0.65747553 0
12.611836 10.712408 1.3174857 0
-5.4510803 44.549335 7.2846346 0
1.3792228 -16.936409 0.58312845 0
17.611074 6.5676169 3.1697066 0
-5.3947382 -16.377211 3.7736454 0
1.4678984 -17.557049 1.4965049 0
12.239822 -22.297104 7.4485765 0
-32.975128 -6.9241443 0.60097623 0
-19.82259 -3.313776 6.2963228 0
-33.094677 -7.7928305 1.0596077 0
-8.1805458 -1.2746871 3.6607053 0
0.1724844 -18.335489 2.540729 0
-4.7021627 -14.598113 0.86876017 0
-0.53486514 -23.262655 5.6377492 0
7.1708717 -21.591145 1.8154219 0
-7.8928108 -5.574719 1.4782876 0
17.297564 0.415178 3.653136 0
-0.57621449 -2.2745659 -0.090351969 0
25.677191 -3.2348995 6.0882425 0
10.412013 -4.5523043 1.6277008 0
12.534634 54.419918 6.1231499 0
-6.3033514 -15.439235 2.7190001 0
10.531257 -31.658476 6.5215759 0
16.670919 6.3925295 3.4246092 0
69.735275 -67.491554 28.043804 0
-16.431635 -11.511763 5.0665078 0
2.0400603 3.4339561 0.94512331 0
-7.7529321 -1.6051159 0.48484123 0
8.2975636 21.397678 3.5944252 0
-8.4401178 -8.2623892 0.5202654 0
-43.117649 -26.442646 12.648504 0
25.511822 -6.5843539 4.0287704 0
-8.4793797 -9.7414513 0.62504566 0
-3.865128 -2.5433342 1.0402384 0
6.6961145 -9.5943499 2.881701 0
-8.5189447 -10.178011 0.7537775 0
-15.868752 76.906372 -0.89055097 0
10.109234 -9.2819328 1.5716807 0
25.479252 -8.3961678 4.0148931 0
-8.7023935 2.4579334 2.9645009 0
-4.5411282 42.103851 -1.0397704 0
8.5180635 -0.49807096 -0.20990169 0
10.204539 -5.5001445 1.5770035 0
10.376886 -32.558132 9.1024284 0
5.5687037 44.598446 -0.19215898 0
12.726361 84.641655 13.940299 0
0.59734803 -17.710041 0.80435777 0
16.857517 5.5275359 3.4098566 0
5.5729384 -5.4232535 1.2100246 0
4.7658238 -5.4955521 1.1777197 0
-2.4931686 -18.463963 1.7562224 0
-11.377356 -1.3334481 2.4536333 0
2.6025436 -22.895996 6.3003693 0
20.492392 9.4093351 1.4798721 0
-4.6406016 -16.648331 2.5792243 0
-13.110686 0.58125275 3.4198537 0
-20.477886 2.7787132 6.4977899 0
-7.8389688 -7.5159378 1.5680605 0
17.580101 -1.0491487 4.361619 0
-12.244828 -10.650787 2.7074709 0
-8.3461113 -7.3606544 1.4884537 0
10.300911 -16.726887 2.3256774 0
-18.3703 -9.4696503 3.731647 0
-5.0563087 -1.8975201 1.0624453 0
3.4667766 -4.4764519 0.45110321 0
28.71892 1.8989636 2.2983117 0
19.556438 18.444309 5.6183224 0
10.756434 4.5647993 1.4223049 0
-8.2117672 0.71194011 -0.094892472 0
16.823261 6.2994676 1.3596348 0
-47.600742 -17.680202 5.1282206 0
-12.731223 -15.597643 1.2835029 0
6.4508533 54.29018 2.5261939 0
-12.658289 -25.142553 2.8313687 0
-2.4043183 -0.62360418 -0.089517765 0
-0.45768043 43.910721 0.71053547 0
12.324597 0.86306477 1.3698131 0
-18.67136 -25.246798 2.778904 0
-47.341629 -18.657249 7.2351274 0
-12.599056 -16.175091 1.1931913 0
6.5267878 53.462345 2.4010639 0
21.291386 1.4705156 3.2255714 0
12.279585 4.557178 2.7203841 0
-0.42214811 -18.379335 2.2945092 0
-34.49889 -7.4180593 1.6585195 0
-14.26717 0.057729304 3.0599198 0
-61.368637 -19.217609 6.6201711 0
11.370337 -32.245205 9.990531 0
6.6437197 44.670036 -0.20516738 0
1.4411794 -17.508022 0.78206867 0
17.016911 5.5344481 3.1944306 0
9.9532518 -3.8780608 1.3215389 0
5.5374122 -10.312354 0.61706799 0
-1.6285412 -3.303041 1.0628729 0
-7.9035974 -1.4683954 1.4333546 0
-32.802929 -7.2120051 -0.23208137 0
-0.47181785 -11.260489 0.41941622 0
69.484428 -66.36956 27.43502 0
-16.318407 -10.409463 4.0067701 0
2.1354394 4.726151 0.1544122 0
-24.262383 55.844635 3.8797612 0
17.110004 5.4248219 2.5739698 0
-7.7741899 -0.38581315 0.56384718 0
8.6996813 22.647131 4.2830577 0
18.388344 11.418569 1.6816047 0
-7.6201324 -9.5133438 1.4324312 0
6.9718742 57.826141 6.5171599 0
-12.193145 -12.392226 2.5139372 0
13.602694 4.4632683 1.5557473 0
-11.893464 -1.0430123 -0.067786403 0
8.3100948 -5.6057334 1.4485148 0
3.8341632 44.436153 -0.48994291 0
5.7949448 -4.8540864 1.0687156 0
6.2674069 10.46206 1.3511587 0
-11.34027 44.530067 7.7573376 0
-4.4718304 -23.556797 5.7621636 0
-38.552322 -12.747713 2.9603124 0
4.9393044 -40.361145 2.3756957 0
70.451759 -65.590836 28.735123 0
-0.84294701 36.773766 -1.0500975 0
3.532505 -5.3982158 0.53017741 0
19.399797 17.4884 5.225709 0
5.3733177 -19.149868 2.6755633 0
3.3787003 -3.4330058 1.209286 0
-30.800337 -13.747182 7.9307489 0
-7.4975152 -10.442201 1.4795949 0
-19.718929 3.1145515 6.0009956 0
-46.538136 -17.814287 4.7245522 0
-11.422505 -15.493515 1.3638029 0
7.1664653 54.230659 2.5612311 0
11.80395 4.042861 1.5129788 0
11.514988 3.5779848 1.408204 0
-3.4912076 -3.5098622 0.17402019 0
12.273946 19.436092 4.7011933 0
-3.5288479 -23.576866 5.9869246 0
-37.061993 -12.830481 2.2492023 0
19.916088 -4.3680081 2.2894516 0
-5.6768327 -10.503303 0.39176783 0
4.3719368 -5.3979988 0.61073506 0
20.611238 17.474487 4.99472 0
6.4853735 -10.271529 1.3383478 0
31.977894 -4.8145409 7.7309275 0
-30.466991 -16.445938 8.3655005 0
-12.624908 -18.351727 0.6187188 0
32.137276 -34.30164 11.237438 0
-10.046075 -6.2341976 5.077734 0
-6.6697426 -17.488375 2.2764633 0
25.85421 -5.8785577 4.0278354 0
10.211494 -6.4153128 1.3971069 0
10.480245 -33.270954 6.9990425 0
16.821119 4.4962277 3.6000473 0
-43.502174 1.0671628 11.796629 0
0.11721457 -18.156717 0.69133061 0
10.752777 52.755241 5.3604383 0
-8.8455992 -17.637829 2.1726341 0
-17.520426 -0.33862299 7.3781824 0
11.558969 -13.256763 2.9077301 0
-64.336655 -20.545765 7.072216 0
1.673955 5.077404 0.35302675 0
-8.6553907 -19.568415 6.9566326 0
16.827789 6.3592 2.4879494 0
-8.1913805 0.2807906 0.58247638 0
7.4249225 23.073563 6.483469 0
-37.265888 -19.35413 8.3092346 0
1.4891012 -1.622526 -0.17703624 0
-34.411324 66.449104 15.106858 0
16.086586 14.079128 2.661639 0
-15.893854 -12.100612 0.7054342 0
-66.333168 -13.536043 9.537158 0
9.4482594 -6.4249988 2.4622762 0
21.350801 -30.829882 8.9180231 0
-1.4552619 -23.328987 5.9548821 0
30.559193 -13.727656 7.1876421 0
10.365127 -6.4057531 2.3678813 0
-65.646027 -13.545391 8.1280241 0
-11.234276 58.087448 2.256644 0
-15.928856 -11.842814 0.68568945 0
-66.765083 -12.525186 12.941064 0
9.341692 -5.4151969 2.3030393 0
-0.50438827 -10.195251 2.8366828 0
33.337509 -21.560787 9.176445 0
20.459448 -3.8087459 2.1305535 0
-4.2738509 -9.3317556 0.3633599 0
11.671099 13.601998 3.1654828 0
5.7106209 -4.4507713 0.68926215 0
-10.565942 -8.0590601 1.3854434 0
21.491547 18.395065 5.1193671 0
30.92716 1.972237 2.890512 0
5.7417397 -10.399198 1.3856833 0
3.5780468 -6.410605 0.52850175 0
-12.138816 -10.863239 1.6287482 0
19.516008 16.532026 4.9231663 0
-6.5465074 1.7848681 0.30037355 0
9.397974 24.21307 3.9409676 0
9.8903704 -4.548687 1.4013667 0
1.3158282 3.5796256 0.43617803 0
16.931198 4.4292564 2.482358 0
-8.1449165 -1.5183754 0.77462947 0
7.5471406 21.41884 4.1031861 0
-7.5992651 -14.487901 1.5136868 0
-73.615372 -15.314409 10.864943 0
-5.0925779 48.608673 -1.0765162 0
7.6231966 5.4971867 -0.36013159 0
9.8698664 -3.8167281 0.32786152 0
-17.116154 47.564598 9.5140409 0
13.552169 5.4849501 1.5191053 0
-20.226683 -3.4101553 6.3721676 0
8.94347 11.539447 2.8363469 0
21.353384 -31.239756 9.1932592 0
4.0743184 -9.9179955 1.1593672 0
-8.4816561 -9.885479 1.6271416 0
-18.318417 -10.613077 2.4299064 0
-11.640819 -0.64611483 1.5903517 0
0.61559993 3.6157877 -0.17510898 0
15.084307 4.4697204 1.5222924 0
-9.0553093 1.1763976 3.2348423 0
4.467083 -6.4992204 0.41986325 0
-5.3833451 -12.665039 4.656146 0
4.4818234 -10.244719 1.2271186 0
-6.5790281 -12.578544 4.5166011 0
3.9213667 -10.214051 1.3501074 0
-7.8175993 -6.3795815 0.70890278 0
8.6764469 16.48082 3.7448292 0
2.5587285 -1.9246607 0.30067763 0
18.469156 21.450172 6.5603905 0
0.48317626 -1.8603628 0.30443788 0
16.719765 21.694378 5.9572673 0
8.9713383 -6.4336681 4.6200867 0
12.049724 3.627583 -0.59973758 0
-18.535133 -19.565758 3.4833193 0
-1.5562869 -8.8304615 2.8662262 0
32.719311 -19.519634 8.6502209 0
7.3491368 -25.541784 1.9565037 0
-0.20061076 -1.8797811 0.24607268 0
15.392641 21.355333 5.8742204 0
15.478587 -16.681728 4.4196401 0
13.612672 14.458635 3.8436115 0
-18.54603 -12.415087 1.5133671 0
-1.5185697 -1.5640118 0.36676252 0
14.563653 21.62896 6.2061324 0
10.131602 -8.512023 2.3376961 0
10.112156 66.215698 17.730759 0
-8.4163809 -3.3704841 2.7617085 0
0.21510348 -20.917267 1.6682454 0
25.616125 -14.590042 4.2153955 0
-25.672989 -14.710108 7.864459 0
9.5139065 -6.4258089 3.7620692 0
-14.667096 76.13118 20.291979 0
68.172012 -72.445801 29.613672 0
1.3643467 -1.8652594 0.1880365 0
17.402903 21.647066 6.1464071 0
12.888123 51.430931 3.042114 0
-6.7218137 -18.423603 2.1143634 0
-8.2914114 -2.4031992 1.5716965 0
16.679747 3.5226223 3.6674898 0
10.098534 -6.5103989 0.55168033 0
-16.638647 44.789093 6.1691723 0
24.981003 -5.8806028 4.0348597 0
9.7442169 -6.4803042 1.5791777 0
11.113396 52.883835 5.1940365 0
-7.0759435 -17.206339 2.0856566 0
9.7872086 -5.4933815 0.32166198 0
-17.547688 45.175129 8.8485651 0
9.3895092 49.885429 7.6081281 0
-9.3411865 -20.261433 2.2638161 0
4.6837258 -3.7083464 0.37851778 0
29.152609 2.0373874 2.6231804 0
-22.814579 47.592361 15.129763 0
3.6048136 -7.4840069 0.53318536 0
-12.105597 -11.104725 1.4778632 0
19.53426 15.536387 4.5001788 0
11.086398 -17.502407 3.867733 0
-3.4911535 -18.454309 1.7751951 0
-12.603466 -1.3518767 2.3757875 0
-5.2433624 -2.3476717 0.61901069 0
9.5417156 16.377525 -2.2071955 0
10.548841 20.483749 3.5538547 0
-6.8741407 -3.7873063 1.7941171 0
2.4518304 -20.319223 0.84852362 0
-6.5438628 -2.8405886 0.25001961 0
9.5510864 20.355286 4.5811324 0
9.6595316 -11.250779 2.6825161 0
1.1743691 -27.305841 6.7327213 0
26.475103 -1.2336177 2.9167664 0
1.3722861 -7.2899847 0.22931167 0
17.39065 15.489141 4.4923153 0
-9.5018702 -7.1487169 3.7946856 0
-34.699265 -6.7335091 2.1943223 0
-0.12974295 -17.139549 3.8662949 0
9.4960518 -12.423384 6.0575819 0
-15.485237 -18.091557 1.9156013 0
17.079575 4.5246673 1.7274904 0
8.8652754 21.204445 2.6982062 0
-7.2194138 -1.6642139 -0.14401689 0
-7.1800437 -21.175478 2.2084787 0
-16.369507 -4.7470384 5.2651229 0
-1.3607526 -2.3646293 0.42296386 0
15.078818 6.5225101 1.5806235 0
13.499475 4.4619255 2.4209344 0
1.6367303 4.5506315 0.15820441 0
-8.825367 -20.358206 6.8836021 0
16.912075 5.5159326 2.5208054 0
-8.1622562 -0.44949698 0.62598246 0
7.5303769 22.333153 4.6650934 0
1.4639095 -2.0522289 -0.092321977 0
9.51511 45.108688 0.31863946 0
-34.211658 65.509987 11.939107 0
-3.3553207 -24.412277 7.0210023 0
-37.052807 -13.112944 2.8041768 0
-3.5744569 -4.3074803 0.18322735 0
-19.049751 -8.7193146 1.813632 0
12.517991 18.226078 4.981277 0
8.5681677 3.463392 -0.2858676 0
-22.793062 -19.500019 7.5159535 0
14.586214 5.555923 1.4571207 0
12.453458 6.4339628 2.750361 0
32.432095 -15.492874 8.5246944 0
-12.381984 0.72198439 0.73835903 0
-12.297224 -19.549295 3.7215376 0
5.4631157 -3.6962929 0.39350578 0
30.904932 2.1105015 2.9453986 0
3.6867182 -8.4302664 0.48299715 0
19.497856 14.672941 3.8599963 0
40.493229 -13.157818 9.3981152 0
-4.5738735 2.0515826 0.26209077 0
33.780811 -34.802723 12.128553 0
20.767584 8.6539297 2.5283601 0
-48.505241 -17.128748 4.9255624 0
-1.4248642 -5.6302443 0.21160446 0
14.857084 17.298618 4.7576079 0
23.218243 0.51341909 2.8728673 0
13.49334 6.49227 1.4400609 0
-11.266818 0.23473458 -0.037654411 0
-1.4587784 -18.299677 1.7560978 0
-10.518845 -1.5118924 2.6184654 0
-3.6199589 -2.4694097 0.46508241 0
12.269534 20.673706 4.832953 0
-0.78517592 -9.5110826 0.58385521 0
15.497532 13.586125 4.1921029 0
20.609669 16.571136 4.7967896 0
-11.636906 -10.885897 1.6883684 0
-11.842934 -18.772833 1.9058291 0
20.73694 8.6538477 3.7564094 0
4.5546017 -14.199526 0.86226857 0
-4.4579444 2.0683801 1.8386338 0
-1.3053906 -9.6260796 0.68186927 0
10.276793 -20.235825 4.7844048 0
-4.7870841 -21.781649 1.8251755 0
9.8491602 -20.237473 4.586482 0
13.215893 48.596386 2.0970733 0
-5.338623 -21.804464 1.7550356 0
-21.402401 2.7577209 6.2597871 0
-7.8505616 -5.5006809 0.66762888 0
17.311745 0.46579447 2.4276419 0
8.4371891 17.510145 3.4459071 0
13.959479 40.875824 2.0534153 0
26.551874 -2.5441923 5.5173478 0
-14.515433 -11.316667 4.8139358 0
14.713929 4.4722557 1.5086932 0
7.7317519 -4.8804584 0.083774842 0
-19.421532 46.249817 11.413122 0
28.446474 -8.5345469 6.0198817 0
-5.2571044 2.0475416 2.4153783 0
-8.1488085 -3.4156287 1.4204341 0
25.320843 -7.4437203 3.959157 0
10.204266 -8.40411 1.602062 0
-24.741383 66.830086 7.4890432 0
9.548028 -4.8920927 3.1177728 0
13.763368 47.637047 2.1605647 0
-5.4933619 -22.120756 1.4966257 0
11.443119 -4.7472305 1.8905832 0
26.593237 -3.4997554 5.5874901 0
-8.397048 -7.5238457 0.74154049 0
-24.446772 -11.810098 1.5685316 0
7.8435068 15.819777 3.7546673 0
10.293833 -3.4974868 1.3361636 0
25.965158 -2.2159925 6.0131388 0
21.863535 -5.8735585 0.62663704 0
12.701607 11.060583 1.7292594 0
-5.4256711 45.383183 7.5092621 0
-7.3375382 1.6120354 1.6015284 0
-38.278244 -21.348171 8.9152718 0
-7.4393854 1.6850053 -0.055188473 0
3.5482509 2.1473176 -0.25637412 0
-27.546324 -20.319481 8.4349813 0
9.4102707 -5.3996673 3.4526405 0
1.5421748 -3.5671792 0.16038391 0
17.755703 19.508158 5.7344394 0
-52.280022 -15.413917 5.8493872 0
14.49462 13.461689 3.3476117 0
1.4944816 56.147667 2.5707741 0
1.3195848 3.5809162 1.2644858 0
-49.34552 -26.877996 14.419776 0
13.262399 28.755531 1.0623654 0
4.7703857 -7.0671577 1.2047948 0
19.188456 -6.7589078 3.1247394 0
17.214642 2.5104787 1.5359237 0
2.4995275 1.5467341 -0.25968513 0
12.359116 -8.4259682 1.5138557 0
27.639534 -7.5725646 4.597188 0
-36.936432 -20.649731 10.159891 0
-5.2196827 2.0583067 -0.058885179 0
30.489651 -10.731112 6.8354936 0
11.535644 -5.2738714 3.6325536 0
1.5722014 -4.4660077 0.19390109 0
13.416055 44.479404 1.3255208 0
26.178827 1.762114 2.815299 0
17.649368 18.533888 5.0168099 0
-15.433091 -15.545654 1.5326312 0
9.4673176 -9.6586838 3.8366632 0
-0.58621305 -9.5561962 3.7432661 0
24.932236 -6.6648417 3.9865024 0
9.9465094 -7.4903507 1.4382284 0
0.65967178 9.5857582 2.7654562 0
9.7688475 -6.4493427 0.33910978 0
-17.261122 44.554272 7.6767349 0
-1.3911598 -1.5288749 -0.097279474 0
27.466867 -8.7102566 5.7744541 0
-6.4377484 2.0940986 2.3955564 0
0.2847276 -5.551158 0.18895626 0
16.605381 17.590065 4.9941578 0
0.28062269 1.9208791 1.4104811 0
-28.729982 -15.734263 7.2671466 0
9.4805079 33.635201 -0.18397531 0
10.656419 2.4672492 -0.22259545 0
27.238802 -6.3859496 5.3959475 0
10.909012 3.5354221 1.4342177 0
-4.5476289 2.0479298 -0.056922164 0
20.592312 8.6548624 1.3410797 0
-8.1239738 -3.259403 0.79210043 0
7.5321126 19.439629 3.6061068 0
-8.4209118 -23.846924 7.1433783 0
-22.472172 -25.375963 7.6246939 0
8.5320024 -2.5099339 -0.13609849 0
-7.5799618 -9.4930792 0.65404743 0
-42.961739 -26.30574 13.206841 0
26.72578 -6.3048873 5.6192541 0
-0.43139476 -7.5648031 0.29283872 0
-28.37413 -13.581387 7.1589856 0
0.37298632 -20.95097 2.2275829 0
-8.5304117 -3.4544661 3.3578362 0
-10.434479 -15.314308 0.75236571 0
21.680637 11.486123 2.4688172 0
34.741646 -31.015778 11.164997 0
10.552332 4.4315414 -0.27570459 0
1.8696295 21.777872 0.24244334 0
27.129833 -3.4384174 5.435904 0
9.238492 28.25663 -0.13744651 0
8.8803234 -5.2539048 3.1307893 0
15.476142 15.495639 4.5739274 0
-16.129107 -11.733215 1.6818922 0
0.54560405 -3.5942049 0.13600831 0
0.4187364 3.4908357 1.5289928 0
9.4381714 -13.614505 0.83422863 0
6.6267824 2.6429303 0.48006529 0
-10.61771 -7.8164763 0.75455129 0
5.6156754 15.482844 3.4759822 0
1.2634209 41.444595 1.7756116 0
14.837032 -1.6938412 2.0770707 0
42.649464 -9.5278702 11.092072 0
-29.532303 -17.133314 8.9051466 0
-3.8568287 43.742668 -1.0042977 0
9.552371 0.47360027 -0.22633812 0
7.2559075 -9.8503809 2.7515452 0
-7.509181 -10.402011 0.74442285 0
0.48561123 -4.382225 0.14576262 0
12.449414 44.478436 1.380771 0
25.503105 1.4961801 2.6476066 0
0.73462439 2.3017719 1.4861615 0
9.5141211 -14.510521 0.59971195 0
-28.687847 -14.500729 9.0300465 0
10.580472 3.49439 -0.23967627 0
-18.5415 -11.597458 2.4268613 0
-3.5251231 42.318661 -1.03403 0
9.5262499 -0.50813472 -0.19940975 0
2.7339201 -6.3046041 0.24858649 0
18.473888 16.506386 4.6862812 0
-11.827094 1.5160052 3.2276187 0
-69.406685 -11.227699 15.970691 0
-0.98046142 -20.356894 2.2074153 0
18.124319 49.293907 7.2270479 0
2.5737724 26.987814 0.56724513 0
-6.0560088 43.112083 1.4089422 0
-3.6198521 56.19315 3.1760867 0
3.2609584 -24.495474 6.3606539 0
13.838726 0.40177044 0.88898635 0
-5.2812567 38.11768 -1.1349807 0
7.4684906 -4.450829 -0.065309912 0
5.7982564 20.681328 4.8446994 0
-0.13090907 2.0160742 0.53853971 0
-9.4174032 -4.6266356 3.4066865 0
-29.301052 -14.64446 9.2615328 0
8.6705885 34.18819 -0.1376676 0
9.453002 3.4751778 -0.27129859 0
-5.3645978 -23.846952 1.1236167 0
-7.8439894 -7.4756298 0.68312126 0
11.66889 -5.3771148 1.8231565 0
26.708025 -4.5328374 5.4370236 0
-0.1718483 43.994331 -0.06868124 0
12.293804 0.81484878 0.83659893 0
7.5888267 -5.3049169 -0.052317251 0
-29.720818 -15.46026 8.0520334 0
8.6395063 33.593399 -0.23388569 0
9.4848166 2.504477 -0.25406867 0
-7.663897 -8.6978359 0.66180509 0
11.122769 -6.5489259 1.4573299 0
26.726046 -5.5481949 5.2691727 0
0.48249272 -10.342903 0.38926414 0
13.560025 12.719538 3.0904508 0
-18.352364 -14.562998 1.4566008 0
6.4400373 -8.7329397 4.3094778 0
-1.4566327 -3.5560105 0.76702744 0
-17.127903 -7.0756564 1.3235227 0
14.514237 19.738228 5.9373512 0
16.861437 -6.8955946 2.0863111 0
-12.848081 0.52413619 3.5350087 0
-3.6954904 -16.921322 2.461482 0
20.406221 19.447401 5.624022 0
-11.093538 -7.6660666 1.6760076 0
-62.561913 -12.604507 13.838891 0
13.076973 -5.5945468 2.864392 0
-11.705396 -11.268325 0.76096779 0
-1.4147865 -6.3768797 0.25004429 0
14.536539 16.269058 4.7897673 0
-55.045647 -18.203171 6.3781667 0
-1.5428069 0.47789106 1.179374 0
7.4197159 -16.145144 0.94880998 0
13.457208 1.4533644 3.6667898 0
5.4133387 -6.6457653 1.2876966 0
11.235042 -58.566975 1.4338281 0
-1.4778131 -15.720314 0.8007077 0
-24.352106 2.5888913 7.6729512 0
1.1605916 -26.634007 6.707284 0
-41.246429 1.1794633 10.90659 0
-1.6073517 41.654644 -0.56144834 0
11.249763 -1.5217605 0.45190769 0
-1.3713156 -1.5293684 1.3097745 0
12.292498 10.54192 -1.2844257 0
-18.540892 -12.404838 2.2725959 0
-8.0314312 -5.3036623 0.82575101 0
16.540945 0.6649496 2.5510833 0
7.6253772 17.633091 3.7151728 0
-22.756903 2.7539408 6.8150001 0
4.5346684 2.3676786 0.50919741 0
-18.610598 -6.8656454 0.75066525 0
40.453667 -11.50842 10.511477 0
-32.519341 1.8438712 9.6871042 0
10.916852 2.297956 1.5958178 0
-35.168629 -21.664404 5.4221606 0
-4.5926051 1.7266989 -0.24979077 0
31.223064 -11.69499 7.0427628 0
6.553658 -17.53993 1.5534557 0
13.617393 3.7708433 1.8096647 0
25.662222 -19.415462 4.7677603 0
-38.395454 -20.536686 7.926959 0
-0.233895 28.262844 -0.32330602 0
0.56668925 -2.068054 -0.08419238 0
-18.529587 -24.782753 7.6214905 0
0.42977679 -29.08633 6.8169355 0
10.264589 -4.375073 0.4830853 0
-16.476671 46.709984 3.4149871 0
-7.2541351 -12.306377 0.62890661 0
17.451761 -6.8159366 2.1312256 0
7.6530738 -11.622545 2.7106874 0
12.454647 44.695583 0.54173559 0
25.225935 1.5830662 1.6983759 0
10.531396 0.52179861 -0.19436574 0
-28.264339 -17.26708 8.5334606 0
21.336859 -0.29739618 1.615779 0
-32.413517 -19.898863 8.1370382 0
-6.6333022 41.732212 -1.1280468 0
6.5097351 -1.5083333 -0.18803836 0
3.4116421 36.608307 -0.89950156 0
16.47415 -6.5597525 0.59127486 0
-10.480429 44.54771 6.960814 0
-31.451683 -15.550526 7.281508 0
-23.537788 -20.579811 8.100975 0
7.4924998 2.5317256 -0.24338408 0
43.368286 -10.423455 11.213636 0
-1.4223187 -10.179265 0.47183391 0
1.6128944 55.511845 2.611455 0
-17.449717 -14.734914 1.282529 0
14.486893 12.860558 3.0862436 0
7.9605408 44.909401 3.6150706 0
-11.800436 -25.045475 2.9981158 0
-1.447638 -0.58520651 -0.12520646 0
1.3279229 -21.233669 5.5460458 0
11.616772 3.6833546 0.76665485 0
0.49193832 1.7285417 -0.22558053 0
2.4529996 6.2732749 1.6015642 0
-1.3137221 32.754089 -0.45509869 0
11.270916 -10.035542 0.73897564 0
19.533117 -6.7200975 2.3200226 0
-5.8496237 -12.398705 0.52323282 0
-9.1381502 0.73552012 3.1468427 0
-34.615349 -5.8191137 1.9314175 0
4.5322256 -7.2953081 0.33513588 0
-11.658811 -11.310148 1.5308154 0
20.37014 15.517724 4.5543528 0
-32.361973 -15.880795 7.1531425 0
-24.255989 -20.560341 8.6577177 0
6.5660014 2.4610598 -0.24110764 0
42.647896 -10.437067 10.679038 0
-2.2045054 41.755695 1.4154083 0
10.902374 -1.7587198 2.0588238 0
-4.4556003 -2.4315362 0.57969815 0
11.36464 20.665089 4.1377926 0
0.68368179 -21.467817 4.0108085 0
10.853088 3.5080142 0.32560027 0
16.609896 3.5032518 1.4284354 0
7.8479052 20.445475 2.9174056 0
1.4966716 2.387589 -0.18491055 0
3.6555305 -13.569336 0.44454399 0
-10.804176 -11.2744 3.7693434 0
2.5133171 -17.348852 2.5847898 0
-6.7979236 -0.19154264 3.2730079 0
-16.073198 -12.232386 2.4594092 0
0.46518198 -1.6567876 -0.16700099 0
-16.007141 -12.1705 0.49715695 0
-67.806213 -13.419146 16.046114 0
8.9436522 -6.0816197 2.2059357 0
-11.447477 -9.6058359 4.5135636 0
74.048569 -65.628281 28.249889 0
18.477234 5.7148232 2.9414382 0
31.916021 -37.259373 12.055737 0
2.615911 -17.486322 0.78362781 0
-6.8771257 -0.57508469 1.6835057 0
18.725859 5.5043917 3.2597191 0
-16.465979 51.795441 12.227209 0
16.511671 0.57882303 1.5852523 0
1.5663574 -0.4576759 -0.2336379 0
-34.667904 67.423737 22.862598 0
-49.2337 -27.141691 14.453691 0
19.502031 -7.2081518 3.2008572 0
-1.2919407 -2.331408 1.1716313 0
-1.2666984 -2.2752941 -0.072612993 0
-32.094547 -18.23242 9.3463993 0
-6.7274866 42.275078 -1.0741314 0
-24.570738 -23.338022 5.4052248 0
6.5575809 -0.48845893 -0.22215703 0
11.329438 -0.69877523 2.0663116 0
-3.4701228 -1.6869421 0.098992914 0
12.24124 21.534624 4.8742237 0
6.4646516 -10.39828 0.5611937 0
-4.6100416 1.6733397 0.39024952 0
11.650278 24.592531 6.416297 0
33.645359 -35.306652 12.170287 0
20.920244 7.5176525 2.5991158 0
-48.529552 -18.579693 5.1753569 0
-67.688629 -10.674974 14.024931 0
4.5459599 27.468418 0.39942285 0
-4.4750905 44.390377 1.4452944 0
41.324047 -10.544337 10.640772 0
15.097634 3.7826135 1.8804239 0
0.73678374 2.0688443 -0.12939061 0
32.081711 -8.1417885 7.5542488 0
7.4441161 67.120972 16.966492 0
-11.266508 -2.244993 2.4723544 0
-2.8716259 -19.041039 1.6121533 0
-5.5155005 -24.027641 1.0685652 0
9.564949 -23.750381 4.8222136 0
13.375729 15.307106 4.3986397 0
-18.58614 -11.681482 1.6018441 0
-0.41605967 -1.5375782 -0.15641008 0
-4.5630069 -1.7608765 0.56721663 0
11.334307 21.582912 3.8588085 0
10.167408 -5.6074467 0.52963871 0
-16.417892 45.154697 6.1750245 0
6.3405113 -3.1922596 1.2784983 0
-8.6791697 -24.355896 2.7212105 0
1.5440885 0.52306247 -0.24394764 0
4.807651 -6.4650302 1.2091509 0
-2.3667512 -15.644259 0.8418557 0
22.003601 -9.4656382 2.918642 0
-14.261545 -24.592028 2.59075 0
10.920217 1.8258556 1.7260902 0
-4.3112197 0.68128753 -0.34223709 0
31.550014 -12.469097 7.1833239 0
6.2825866 -18.243093 1.7023605 0
-2.1031158 41.140713 -0.31398955 0
10.828976 -1.7970172 0.36752486 0
-16.752737 49.811432 12.825373 0
16.792574 46.522621 6.3684516 0
-2.2738624 -23.783981 2.6742451 0
-11.635014 -6.8572378 4.996829 0
-31.430878 -16.479902 8.0390472 0
-68.447563 -10.618484 13.308493 0
3.5235918 27.368273 0.36352736 0
-5.1800051 44.478767 1.5657729 0
21.191444 2.2239163 3.1565266 0
-10.5714 -24.331068 1.6153456 0
4.5216966 2.2657893 -0.27182874 0
-32.414906 2.0972321 10.540551 0
40.664204 -10.705492 11.072465 0
3.6037896 -18.128801 2.3728886 0
1.564057 -2.1290843 1.1663876 0
13.431167 4.6015239 0.77277327 0
6.5988069 -4.4194746 -0.068752281 0
0.32151076 -28.7906 6.8192797 0
10.341036 -3.5148003 0.41829774 0
-1.6152536 43.821018 -0.20442504 0
11.247145 0.49496084 0.45107409 0
-15.583755 51.787338 12.579986 0
5.3429451 -15.906515 2.8351009 0
-7.4156094 -14.645739 0.73890394 0
37.431835 -30.215868 9.9584236 0
3.572273 0.54591775 -0.22362262 0
6.5887504 27.518211 -0.094591305 0
7.5491662 -3.5456629 -0.10343647 0
0.62270069 -9.4545794 0.32145375 0
16.730663 13.537036 3.9077566 0
10.45012 -13.298955 2.8807175 0
-65.467033 -20.933765 9.1963968 0
6.9338455 17.091444 0.66208732 0
-11.506256 -1.3744357 1.4194629 0
-2.1707284 -18.304338 0.7490142 0
13.062535 4.0868468 3.399982 0
-1.4246975 1.5019356 -0.20468412 0
18.225636 -0.8784945 1.7106273 0
9.3986788 16.492687 2.2182362 0
3.5908594 -17.467747 2.66081 0
-15.739339 -12.33296 2.4693098 0
-8.1164227 -2.5032301 0.75579149 0
29.111538 -39.797165 8.8771753 0
16.94466 3.8128958 2.392163 0
7.4839392 20.568836 3.6158452 0
17.145569 3.3919747 1.7278987 0
8.6597261 20.75132 2.8268273 0
-7.3923907 -2.52669 -0.040170267 0
-28.241806 -20.024851 8.9789324 0
2.5754414 2.1250503 -0.23501526 0
-3.4603961 1.3703924 -0.16461428 0
-4.301897 -23.731642 2.7177379 0
29.105032 -34.408859 9.6325226 0
39.135735 -29.979048 8.6403303 0
5.438139 -18.362076 2.6157334 0
-17.3904 -6.7445912 0.68838388 0
41.337067 -11.16814 10.443528 0
-37.167137 -12.752665 1.4001075 0
-3.5520282 -23.833 2.6690235 0
6.3910809 -18.462683 2.5696788 0
4.5763884 -2.5015519 -0.16088417 0
-1.1911458 2.0333462 -0.15044306 0
-32.477467 -20.290117 8.6485672 0
5.4871817 28.283035 -0.30981916 0
6.5051503 -2.4942286 -0.14970177 0
21.579348 13.444559 2.433938 0
-10.275455 -13.779331 0.69085133 0
-69.405548 -10.583223 10.980749 0
2.8717 27.274633 0.27169055 0
28.899872 2.0377634 2.5080943 0
3.3509564 -3.4350221 0.46311575 0
19.511288 19.477072 6.1132083 0
-5.989831 40.716728 -1.1707132 0
-23.135319 -25.264433 8.2827749 0
7.4893861 -2.4799724 -0.14335307 0
-2.6979632 -3.4473336 0.16098453 0
-18.63942 -7.8901367 1.9237218 0
13.557617 19.624477 5.7418656 0
-12.33479 -1.3507812 1.3491153 0
-3.6637473 -18.490637 0.74899 0
-32.261757 -17.490803 8.3803396 0
-16.563715 47.724625 7.0746765 0
-4.1917281 0.91474223 -1.0951926 0
-2.2214441 44.112007 -0.45504469 0
10.949066 1.6090386 0.33831519 0
-16.49629 52.252514 12.297831 0
5.5730429 -3.3926904 -0.1235112 0
-32.469955 -16.545567 7.0502939 0
21.158016 2.4574771 1.4994622 0
-3.5259056 -3.0403059 -0.043294534 0
-24.440453 -21.706921 8.582242 0
6.5928841 1.5097525 -0.25967175 0
-74.442978 -19.554205 13.025114 0
20.788422 10.266784 1.5165687 0
-4.8549647 -15.525505 2.4389949 0
-13.426645 1.2143624 3.0755334 0
22.107874 -6.349308 0.71218127 0
13.484059 10.777919 1.5216602 0
2.6728506 -16.910645 0.84551358 0
17.06868 2.4489694 -2.464602 0
18.632236 6.5780478 3.2731452 0
-16.815411 48.655083 4.748487 0
-4.2704067 1.0252554 -1.1134433 0
-6.3969178 58.452007 8.6541853 0
10.912451 2.4920635 0.32931146 0
18.413141 2.1464062 3.062192 0
-13.470444 -24.555706 1.6566375 0
-15.806487 47.924763 8.1532202 0
-3.9998045 0.93795758 -1.0027809 0
1.4875197 -23.29665 6.3306255 0
-32.526764 -12.602564 2.5469763 0
-1.5113748 44.185013 -0.36167768 0
11.115321 1.4398489 0.43908271 0
-15.670344 52.098965 12.394046 0
-32.429081 2.1778438 1.7095611 0
10.06952 -25.065647 1.8563945 0
-3.5934777 -28.407187 2.8896947 0
-12.245855 -11.287182 3.7900937 0
6.5266023 -3.4777737 -0.10930448 0
0.57136708 -27.431236 6.8213501 0
-2.0088775 40.614243 -0.51172566 0
10.742266 -2.5871668 0.42929372 0
-14.332197 -0.70198727 3.1938334 0
-5.9304934 -17.423798 2.3824861 0
-0.55145013 -8.4894609 0.3067528 0
-16.020302 -12.058235 1.8019211 0
15.489061 14.582029 4.2678165 0
-13.548145 -0.79186344 3.446383 0
-4.2375236 -17.327545 2.6285 0
0.57464951 -8.6416674 0.28610495 0
-15.810281 -12.23554 1.5446215 0
16.523636 14.485815 4.1576643 0
-7.6446509 -8.5610762 1.5091962 0
2.479563 -7.2963195 0.26852077 0
18.571829 15.506645 4.3816695 0
-51.186584 -19.33235 9.2391424 0
